ply
format ascii 1.0
comment Generated by Chaoscope Clone
element vertex 1150
property float x
property float y
property float z
property uchar red
property uchar green
property uchar blue
end_header
-91.565008 -74.837813 20.823622 155 89 182
4.217496 12.581092 47.887368 231 76 60
52.108750 -43.709455 40.202570 243 156 18
76.054373 28.145273 36.220841 231 76 60
88.027191 64.072638 25.446289 231 76 60
-5.986406 82.036314 35.029342 22 160 133
47.006798 91.018162 27.903812 231 76 60
-26.496601 95.509081 28.970008 22 160 133
36.751699 -2.245460 45.891571 243 156 18
-31.624150 -51.122732 42.218094 155 89 182
34.187925 -75.561366 35.715570 243 156 18
67.093964 -87.780685 24.739742 243 156 18
83.546982 -93.890343 16.934458 243 156 18
91.773491 3.054829 31.114674 231 76 60
-4.113255 51.527414 43.206267 22 160 133
47.943373 75.763707 33.220465 231 76 60
-26.028314 -12.118146 47.336845 155 89 182
-63.014159 43.940926 37.810037 22 160 133
18.492922 71.970463 38.250334 231 76 60
-40.753541 85.985231 31.127346 22 160 133
-70.376768 92.992620 21.664326 22 160 133
-85.188389 96.496305 15.162359 22 160 133
7.405807 -1.751846 47.717175 243 156 18
-46.297097 -50.875921 39.880550 155 89 182
-73.148546 24.562039 37.422047 22 160 133
13.425726 -37.718980 45.997672 243 156 18
-43.287139 -68.859491 36.369977 155 89 182
-71.643567 15.570254 38.468227 22 160 133
14.178215 -42.214870 45.261850 243 156 18
57.089109 28.892565 41.382222 231 76 60
-21.455445 -35.553718 46.012836 155 89 182
-60.727725 -67.776861 33.102934 155 89 182
-80.363865 16.111571 35.635793 22 160 133
9.818069 58.055787 42.115965 231 76 60
-45.090966 79.027891 32.811019 22 160 133
-72.545481 89.513950 22.431419 22 160 133
13.727258 94.756975 30.032580 231 76 60
-43.136373 -2.621513 44.858198 155 89 182
-71.568184 -51.310759 33.881671 155 89 182
14.215907 24.344621 47.452397 231 76 60
-42.892046 62.172313 38.222847 22 160 133
-71.446023 81.086159 25.960419 22 160 133
-85.723009 90.543079 17.534908 22 160 133
7.138494 -4.728461 47.887082 243 156 18
-46.430755 -52.364230 39.607127 155 89 182
26.784623 23.817885 46.761637 231 76 60
63.392310 61.908941 33.968241 231 76 60
81.696157 80.954475 22.660346 231 76 60
90.848074 -9.522765 31.723936 243 156 18
95.424042 45.238619 26.384649 231 76 60
97.712021 72.619309 18.849130 231 76 60
-1.143990 86.309652 33.164010 22 160 133
-50.571995 93.154831 26.203837 22 160 133
24.714003 -3.422586 47.233834 243 156 18
62.357001 -51.711292 36.356492 243 156 18
81.178503 -75.855646 24.500117 243 156 18
-9.410750 -87.927828 32.882321 155 89 182
-54.705377 6.036088 42.716403 22 160 133
22.647312 53.018045 42.681851 231 76 60
-38.676343 76.509023 34.767482 22 160 133
30.661829 88.254509 31.646976 231 76 60
-34.669087 94.127254 28.734825 22 160 133
32.665458 -2.936372 46.500082 243 156 18
-33.667271 48.531814 42.510209 22 160 133
33.166363 74.265909 36.266608 231 76 60
66.583180 -12.867047 39.989936 243 156 18
83.291588 -56.433525 29.051957 243 156 18
-8.354204 -78.216763 36.401393 155 89 182
-54.177103 10.891619 42.906675 22 160 133
22.911448 -44.554191 44.378877 243 156 18
-38.544276 -72.277093 36.149387 155 89 182
30.727863 -86.138544 32.471535 243 156 18
65.363932 6.930726 40.282531 231 76 60
82.681961 53.465362 29.855292 231 76 60
-8.659017 -23.267319 47.571321 155 89 182
45.670490 38.366342 42.464032 231 76 60
-27.164755 69.183168 38.469625 22 160 133
36.417623 -15.408415 46.175680 243 156 18
-31.791189 -57.704206 40.953627 155 89 182
34.104407 -78.852105 34.694786 243 156 18
67.052202 10.573949 39.883206 231 76 60
83.526106 55.286975 29.202347 231 76 60
-8.236949 -22.356513 47.642012 155 89 182
45.881524 38.821743 42.351952 231 76 60
-27.059238 69.410872 38.411562 22 160 133
36.470382 84.705439 32.288306 231 76 60
68.235192 -7.647282 39.509997 243 156 18
-15.882405 46.176357 44.441247 22 160 133
42.058797 -26.911821 44.538250 243 156 18
-28.970602 36.544089 45.258536 22 160 133
-64.485302 68.272047 32.026093 22 160 133
17.757350 -15.863978 47.883563 243 156 18
-41.121325 -57.931991 39.554405 155 89 182
29.439337 -78.965993 35.185256 243 156 18
-35.280330 -89.482994 30.602911 155 89 182
32.359834 -94.741497 28.760607 243 156 18
66.179919 2.629251 39.866347 231 76 60
-16.910042 -48.685374 43.840823 155 89 182
-58.455019 -74.342690 31.592705 155 89 182
-79.227509 12.828656 36.066577 22 160 133
10.386245 -43.585672 45.025592 243 156 18
55.193124 28.207164 41.827621 231 76 60
77.596560 -35.896418 34.849689 243 156 18
-11.201719 -67.948208 39.624922 155 89 182
-55.600858 -83.974104 28.972483 155 89 182
-77.800431 -91.987057 19.734249 155 89 182
11.099786 4.006474 47.899022 231 76 60
55.549893 52.003236 37.859080 231 76 60
77.774944 76.001620 25.602412 231 76 60
88.887472 -11.999191 32.503390 243 156 18
-5.556263 -55.999594 42.439847 155 89 182
47.221870 22.000203 43.887539 231 76 60
-26.389065 61.000099 40.688429 22 160 133
36.805468 80.500050 33.745425 231 76 60
68.402734 90.250025 23.393075 231 76 60
-15.798633 -4.874987 47.883201 155 89 182
42.100682 47.562509 41.432323 231 76 60
71.050344 73.781252 28.463378 231 76 60
85.525169 86.890631 19.055854 231 76 60
92.762585 93.445311 13.475176 231 76 60
96.381292 96.722660 10.421762 231 76 60
-1.809354 98.361330 28.092391 22 160 133
-50.904675 -0.819336 43.082914 155 89 182
-75.452337 -50.409670 32.752473 155 89 182
12.273831 24.795165 47.411942 231 76 60
56.136913 62.397585 35.516684 231 76 60
78.068457 81.198788 23.801556 231 76 60
89.034233 -9.400604 32.453499 243 156 18
94.517117 45.299697 26.772687 231 76 60
97.258558 -27.350152 28.110065 243 156 18
-1.370721 36.324925 45.893888 22 160 133
49.314637 68.162460 35.272746 231 76 60
74.657321 84.081230 23.834114 231 76 60
87.328663 -7.959384 33.092625 243 156 18
93.664331 46.020308 26.990860 231 76 60
96.832161 -26.989846 28.332856 243 156 18
98.416080 -63.494921 21.117656 243 156 18
99.208040 18.252538 27.843180 231 76 60
-0.395979 -40.873733 45.099010 155 89 182
-50.197988 -70.436864 34.402733 155 89 182
-75.098996 -85.218430 23.257334 155 89 182
12.450503 7.390783 48.008943 231 76 60
-43.774748 -46.304607 41.386809 155 89 182
28.112626 26.847696 46.423979 231 76 60
-35.943687 -36.576152 44.423227 155 89 182
32.028155 31.711924 45.578952 231 76 60
-33.985922 65.855961 38.705308 22 160 133
-66.992960 82.927980 26.627405 22 160 133
16.503520 -8.536010 47.980313 243 156 18
-41.748242 -54.268003 40.190845 155 89 182
-70.874119 22.865999 38.309231 22 160 133
-85.437059 -38.567002 31.691957 155 89 182
7.281470 -69.283500 39.194593 243 156 18
-46.359267 -84.641752 30.558174 155 89 182
-73.179631 7.679125 37.995701 22 160 133
13.410183 -46.160436 44.484587 243 156 18
56.705093 -73.080220 32.388313 243 156 18
78.352547 -86.540108 21.737964 243 156 18
-10.823727 -93.270054 30.702631 155 89 182
44.588137 3.364973 44.620166 231 76 60
72.294068 -48.317513 34.263735 243 156 18
-13.852966 25.841243 47.340279 22 160 133
-56.926484 62.920623 35.232663 22 160 133
-78.463240 -18.539690 36.169212 155 89 182
10.768379 -59.269843 41.843119 243 156 18
55.384188 20.365078 42.403083 231 76 60
77.692094 -39.817462 34.219015 243 156 18
-11.153953 30.091269 47.016659 22 160 133
-55.576978 65.045633 34.980476 22 160 133
-77.788486 -17.477182 36.441009 155 89 182
-88.894243 41.261411 29.901173 22 160 133
5.552878 70.630703 38.733635 231 76 60
-47.223563 85.315351 30.112307 22 160 133
-73.611779 92.657681 20.779800 22 160 133
13.194109 -3.671162 47.860885 243 156 18
-43.402944 48.164420 41.044793 22 160 133
28.298528 74.082208 36.837289 231 76 60
-35.850737 -12.958895 46.289263 155 89 182
-67.925367 43.520551 36.597595 22 160 133
16.037316 -28.239725 47.123871 243 156 18
58.018656 35.880139 40.357404 231 76 60
-20.990672 -32.059932 46.497102 155 89 182
39.504664 -66.029963 37.842205 243 156 18
69.752331 -83.014984 25.799198 243 156 18
84.876165 -91.507492 17.463028 243 156 18
-7.561917 -95.753746 29.575777 155 89 182
46.219044 2.123127 44.204297 231 76 60
73.109522 -48.938437 33.851697 243 156 18
-13.445239 -74.469218 37.572618 155 89 182
-56.722622 12.765391 42.374182 22 160 133
21.638689 56.382694 42.107978 231 76 60
60.819345 -21.808653 41.106796 243 156 18
-19.590328 -60.904326 41.233106 155 89 182
40.204835 19.547837 45.419397 231 76 60
70.102420 -40.226083 36.560118 243 156 18
85.051212 -70.113039 24.935186 243 156 18
-7.474396 -85.056524 33.974373 155 89 182
-53.737197 7.471740 42.950525 22 160 133
23.131402 -46.264129 44.006052 243 156 18
-38.434300 -73.132067 35.888543 155 89 182
30.782850 -86.566029 32.296786 243 156 18
65.391426 -93.283014 22.954147 243 156 18
82.695713 -96.641512 16.018800 243 156 18
-8.652143 -98.320751 28.411059 155 89 182
45.673928 0.839623 44.220610 231 76 60
-27.163036 50.419812 42.749615 22 160 133
-63.581519 -24.790094 40.150561 155 89 182
-81.790762 37.604952 33.166027 22 160 133
-90.895376 68.802476 23.010237 22 160 133
-95.447693 -15.598762 29.693780 155 89 182
-97.723846 -57.799382 22.803490 155 89 182
-98.861923 -78.899689 16.288724 155 89 182
0.569039 10.550154 47.662778 231 76 60
-49.715481 -44.724922 40.410752 155 89 182
-74.857740 -72.362461 27.679186 155 89 182
12.571130 13.818769 48.025775 231 76 60
-43.714433 56.909385 39.282968 22 160 133
28.142784 -21.545308 46.847272 243 156 18
64.071393 39.227345 38.394434 231 76 60
82.035694 -30.386326 34.033926 243 156 18
91.017847 -65.193162 23.967977 243 156 18
95.508928 17.403418 29.607923 231 76 60
97.754459 -41.298289 26.071827 243 156 18
-1.122769 29.350855 46.726823 22 160 133
-50.561385 -35.324574 41.840854 155 89 182
-75.280690 -67.662287 28.963661 155 89 182
-87.640343 16.168857 32.927258 22 160 133
-93.820171 58.084431 24.497256 22 160 133
-96.910086 -20.957785 28.775604 155 89 182
-98.455048 -60.478892 21.845894 155 89 182
0.772478 19.760554 47.447162 231 76 60
-49.613762 -40.119724 41.287451 155 89 182
25.193119 29.940138 46.359582 231 76 60
62.596560 -35.029931 39.382577 243 156 18
-18.701720 32.485034 46.577420 22 160 133
40.649142 66.242518 37.594895 231 76 60
-29.675429 83.121262 33.719132 22 160 133
-64.837713 -8.439370 40.460324 155 89 182
-82.418861 -54.219685 29.810388 155 89 182
8.790571 22.890158 47.606969 231 76 60
54.395285 61.445079 36.114018 231 76 60
77.197642 -19.277461 36.539185 243 156 18
88.598824 -59.638729 26.314244 243 156 18
-5.700589 -79.819365 35.790284 155 89 182
-52.850294 10.090318 43.148961 22 160 133
-76.425147 -44.954844 33.668692 155 89 182
-88.212576 27.522578 31.953576 22 160 133
-94.106283 -36.238711 28.517075 155 89 182
2.946857 31.880646 46.589622 231 76 60
51.473427 -34.059677 41.870265 243 156 18
75.736713 32.970161 35.819705 231 76 60
87.868357 -33.514919 31.469257 243 156 18
93.934183 33.242540 29.005432 231 76 60
96.967087 66.621270 20.983958 231 76 60
98.483543 -16.689365 28.260605 243 156 18
99.241772 41.655316 25.298765 231 76 60
99.620886 -29.172342 26.830983 243 156 18
99.810448 35.413830 26.004441 231 76 60
-0.094778 -32.293086 46.323757 155 89 182
49.952612 -66.146541 35.677297 243 156 18
-25.023694 16.926728 47.313104 22 160 133
-62.511849 -41.536636 38.384235 155 89 182
-81.255922 29.231682 34.417748 22 160 133
-90.627966 64.615841 24.276564 22 160 133
4.686019 -17.692080 47.807350 243 156 18
-47.656989 -58.846040 38.041599 155 89 182
26.171505 -79.423018 35.293574 243 156 18
63.085752 10.288490 40.913224 231 76 60
-18.457124 55.144243 42.553692 22 160 133
40.771437 -22.427878 45.126243 243 156 18
70.385718 38.786061 36.703517 231 76 60
85.192862 -30.606968 32.851090 243 156 18
92.596426 34.696515 29.396739 231 76 60
96.298218 67.348256 21.089728 231 76 60
-1.850893 -16.325871 47.691565 155 89 182
49.074554 41.837063 41.125145 231 76 60
74.537277 -29.081469 36.613796 243 156 18
87.268639 35.459266 31.438558 231 76 60
93.634319 67.729635 22.158778 231 76 60
96.817160 83.864813 15.511237 231 76 60
-1.591420 -8.067592 47.721567 155 89 182
-50.795712 -54.033794 38.350570 155 89 182
24.602144 -77.016897 36.181362 243 156 18
62.301073 -88.508453 25.692503 243 156 18
-18.849463 -94.254227 30.087013 155 89 182
-59.424734 -97.127113 22.715735 155 89 182
-79.712367 -98.563557 16.159536 155 89 182
-89.856186 0.718222 31.732979 22 160 133
-94.928093 -49.640889 25.606098 155 89 182
2.535954 -74.820442 37.210550 243 156 18
-48.732023 12.589778 43.898807 22 160 133
25.633988 -43.705111 44.301820 243 156 18
62.816997 -71.852555 31.356637 243 156 18
81.408501 -85.926275 20.940037 243 156 18
90.704250 -92.963142 14.548533 243 156 18
-4.647876 -96.481571 29.138670 155 89 182
-52.323937 -98.240786 23.628657 155 89 182
23.838031 0.879608 47.145071 231 76 60
-38.080986 -49.560194 41.615286 155 89 182
-69.040494 -74.780097 28.720467 155 89 182
-84.520245 -87.390051 19.234082 155 89 182
7.739877 6.304976 47.961254 231 76 60
53.869939 53.152490 37.983892 231 76 60
76.934967 -23.423755 36.323423 243 156 18
-11.532515 38.288121 45.932899 22 160 133
-55.766258 69.144063 33.797805 22 160 133
-77.883129 84.572029 22.648311 22 160 133
11.058435 -7.713985 48.040009 243 156 18
55.529218 -53.856993 37.534761 243 156 18
77.764611 23.071504 36.093206 231 76 60
88.882303 61.535754 25.744350 231 76 60
94.441156 80.767879 17.681500 231 76 60
-2.779424 -9.616062 47.825351 155 89 182
48.610287 -54.808030 38.663943 243 156 18
-25.694857 22.595985 46.941013 22 160 133
37.152572 61.297994 39.392192 231 76 60
-31.423714 -19.351004 46.662712 155 89 182
34.288144 -59.675503 40.206084 243 156 18
67.144070 -79.837751 27.665460 243 156 18
83.572035 10.081124 34.569006 231 76 60
91.786022 55.040565 26.005385 231 76 60
-4.106991 77.520280 36.476161 22 160 133
47.946506 88.760138 28.601520 231 76 60
-26.026747 -5.619929 47.251120 155 89 182
-63.013372 -52.809963 36.010668 155 89 182
18.493313 -76.404982 36.823542 243 156 18
-40.753345 11.797509 45.536890 22 160 133
-70.376673 55.898752 33.405983 22 160 133
14.811664 -22.050624 47.649336 243 156 18
-42.594166 -61.025310 38.570905 155 89 182
-71.297083 -80.512657 26.209323 155 89 182
-85.648546 9.743672 33.784354 22 160 133
7.175729 54.871836 42.725792 231 76 60
-46.412134 77.435918 33.048127 22 160 133
-73.206067 -11.282041 38.016818 155 89 182
-86.603031 -55.641022 27.956233 155 89 182
-93.301516 -77.820511 19.162465 155 89 182
3.349242 -88.910255 32.296841 243 156 18
-48.325381 -94.455128 26.132951 155 89 182
25.837309 -97.227564 28.226910 243 156 18
-37.081344 -98.613777 26.329048 155 89 182
31.459327 -99.306889 26.745470 243 156 18
65.729666 -99.653444 19.947020 243 156 18
-17.135168 -99.826727 27.591727 155 89 182
-58.567586 -99.913359 21.581330 155 89 182
-79.283791 -99.956684 15.626304 155 89 182
10.358104 0.021660 47.611938 231 76 60
55.179052 50.010829 38.245604 231 76 60
-22.410474 75.005417 36.990504 22 160 133
-61.205239 -12.497293 41.356645 155 89 182
19.397382 43.751354 44.777246 231 76 60
-40.301309 -28.124323 44.748049 155 89 182
-70.150657 35.937839 37.206717 22 160 133
14.924673 67.968917 39.583297 231 76 60
-42.537665 -16.015540 45.164347 155 89 182
-71.268830 41.992230 35.897093 22 160 133
14.365584 -29.003885 47.095232 243 156 18
57.182794 35.498056 40.592399 231 76 60
78.591394 67.749028 27.909634 231 76 60
89.295702 -16.125486 32.288654 243 156 18
-5.352151 41.937256 45.228715 22 160 133
-52.676077 -29.031372 42.227125 155 89 182
23.661962 -64.515686 40.032606 243 156 18
61.830983 -82.257843 28.192017 243 156 18
-19.084510 -91.128922 31.414919 155 89 182
40.457745 4.435539 45.445819 231 76 60
70.228872 52.217770 34.144418 231 76 60
85.114441 76.108885 22.998662 231 76 60
92.557220 88.054447 15.777266 231 76 60
96.278610 -5.972779 29.282901 243 156 18
98.139305 -52.986388 23.559732 243 156 18
99.069653 -76.493196 16.955351 243 156 18
-0.465174 -88.246593 32.344251 155 89 182
49.767413 5.876701 43.574452 231 76 60
-25.116293 52.938352 42.461405 22 160 133
37.441852 76.469173 34.956217 231 76 60
-31.279073 -11.765412 46.877966 155 89 182
-65.639539 -55.882707 34.758942 155 89 182
-82.819767 -77.941351 23.275459 155 89 182
-91.409883 -88.970680 15.906526 155 89 182
4.295058 5.514662 47.810016 231 76 60
52.147527 -47.242670 39.464965 243 156 18
-23.926237 -73.621335 37.329974 155 89 182
-61.963120 13.189332 41.168504 22 160 133
-80.981560 -43.405333 32.473173 155 89 182
9.509221 -71.702666 38.499575 243 156 18
54.754610 14.148667 42.769217 231 76 60
-22.622695 -42.925668 44.721093 155 89 182
38.688653 -71.462831 36.386030 243 156 18
-30.655673 14.268583 46.930957 22 160 133
34.672163 -42.865710 43.571715 243 156 18
-32.663918 -71.432853 37.252159 155 89 182
33.668041 14.283572 46.585326 231 76 60
-33.165979 57.141786 40.914044 22 160 133
-66.582990 78.570895 28.243437 22 160 133
16.708505 89.285450 32.274241 231 76 60
58.354254 94.642725 24.082878 231 76 60
-20.822873 -2.678638 47.524562 155 89 182
-60.411439 48.660679 37.442944 22 160 133
19.794282 74.330339 37.407959 231 76 60
59.897141 87.165174 26.809926 231 76 60
-20.051429 -6.417415 47.749209 155 89 182
39.974284 46.791291 41.971645 231 76 60
-30.012858 -26.604354 46.268053 155 89 182
-65.006428 -63.302178 33.218694 155 89 182
-82.503214 -81.651087 22.134748 155 89 182
8.748393 -90.825548 31.725638 243 156 18
-45.625806 -95.412769 26.309977 155 89 182
27.187097 2.293614 46.996851 231 76 60
-36.406450 51.146808 41.588402 22 160 133
-68.203225 75.573401 28.721194 22 160 133
15.898387 -12.213298 47.994022 243 156 18
-42.050805 43.893352 42.209377 22 160 133
-71.025405 71.946673 29.068396 22 160 133
-85.512705 85.973339 19.423311 22 160 133
-92.756348 92.986670 13.678390 22 160 133
-96.378174 96.493330 10.529215 22 160 133
-98.189087 98.246670 8.871614 22 160 133
-99.094543 99.123335 8.017908 22 160 133
-99.547272 -0.438333 27.408252 155 89 182
0.226364 49.780831 43.221035 231 76 60
50.113182 -25.109584 42.921758 243 156 18
-24.943409 -62.554793 40.376887 155 89 182
37.528296 -81.277399 33.351927 243 156 18
68.764148 9.361302 39.380488 231 76 60
-15.617926 -45.319347 44.626694 155 89 182
42.191038 -72.659674 35.417864 243 156 18
-28.904481 -86.329842 32.578497 155 89 182
35.547760 6.835082 46.296983 231 76 60
-32.226121 53.417540 41.760364 22 160 133
33.886940 76.708770 35.408967 231 76 60
-33.056531 88.354387 31.340506 22 160 133
33.471735 -5.822808 46.543245 243 156 18
66.735868 -52.911406 35.033519 243 156 18
83.367929 -76.455703 23.545330 243 156 18
91.683969 11.772149 31.372375 231 76 60
95.841980 -44.113927 26.420531 243 156 18
97.920990 27.943037 27.753353 231 76 60
-1.039504 -36.028481 45.912409 155 89 182
-50.519753 -68.014240 35.066924 155 89 182
24.740124 15.992880 47.373476 231 76 60
62.370062 -42.003560 38.337319 243 156 18
81.185036 28.998220 34.464545 231 76 60
-9.407485 -35.500891 46.357689 155 89 182
45.296259 32.249556 43.398142 231 76 60
72.648129 66.124778 30.264862 231 76 60
-13.675935 -16.937611 47.956748 155 89 182
-56.837969 41.531196 39.713192 22 160 133
21.581016 70.765595 38.444636 231 76 60
60.790510 85.382795 27.298729 231 76 60
-19.604746 92.691402 30.730391 22 160 133
40.197625 96.345701 26.910450 231 76 60
70.098815 -1.827150 38.687942 243 156 18
85.049410 49.086423 29.779217 231 76 60
-7.475297 74.543214 37.530062 22 160 133
-53.737650 87.271605 28.057168 22 160 133
23.131175 93.635807 30.063756 231 76 60
61.565590 96.817904 22.342429 231 76 60
80.782795 -1.591049 35.227959 243 156 18
-9.608603 49.204473 43.805771 22 160 133
-54.804301 -25.397763 42.101321 155 89 182
-77.402153 37.301118 34.689741 22 160 133
11.298925 -31.349440 46.877251 243 156 18
-44.350538 34.325280 43.328013 22 160 133
-72.175269 -32.837360 36.995878 155 89 182
-86.087637 33.581319 32.164972 22 160 133
-93.043814 -33.209341 29.398861 155 89 182
-96.521912 33.395331 27.836211 22 160 133
1.739046 -33.302336 46.342587 243 156 18
-49.130478 -66.651168 35.746448 155 89 182
25.434761 16.674416 47.302098 231 76 60
-37.282619 58.337207 40.066662 22 160 133
-68.641310 -20.831397 39.125459 155 89 182
15.679345 -60.415697 41.518631 243 156 18
57.839675 -80.207853 29.846084 243 156 18
78.919835 9.896076 36.190643 231 76 60
89.459915 54.948039 26.975601 231 76 60
94.729958 77.474017 18.651885 231 76 60
97.364979 -11.262990 28.869972 243 156 18
-1.317510 44.368505 44.523787 22 160 133
-50.658755 72.184253 33.788536 22 160 133
24.670622 86.092129 32.984011 231 76 60
62.335310 93.046064 23.818929 231 76 60
81.167660 -3.476968 35.216753 243 156 18
-9.416172 48.261514 44.029489 22 160 133
45.291915 -25.869243 43.976617 243 156 18
72.645955 -62.934623 31.076870 243 156 18
-13.677021 -81.467314 35.294194 155 89 182
43.161488 9.266345 45.102692 231 76 60
71.580744 -45.366826 35.141294 243 156 18
85.790377 -72.683415 23.847630 243 156 18
92.895184 -86.341705 16.306911 243 156 18
96.447592 -93.170853 11.968384 243 156 18
-1.776204 -96.585426 28.918190 155 89 182
49.111900 1.707287 43.511620 231 76 60
-25.444050 50.853643 42.793946 22 160 133
37.277975 75.426822 35.297225 231 76 60
-31.361012 87.713413 31.774282 22 160 133
-65.680509 93.856707 22.624843 22 160 133
17.159747 96.928349 28.969834 231 76 60
58.579874 -1.535824 41.667809 243 156 18
-20.710063 49.232087 43.511915 22 160 133
39.644969 -25.383956 45.047789 243 156 18
-30.177517 37.308023 45.017228 22 160 133
34.911242 68.654013 37.792118 231 76 60
-32.544379 84.327002 32.963359 22 160 133
-66.272187 92.163506 23.201869 22 160 133
-83.136091 96.081753 16.116991 22 160 133
-91.568050 98.040876 11.913313 22 160 133
-95.784025 99.020433 9.613101 22 160 133
-97.892008 -0.489781 28.207572 155 89 182
1.053994 49.755111 43.300452 231 76 60
-49.473004 -25.122445 43.071046 155 89 182
25.263498 37.438776 45.380859 231 76 60
62.631750 68.719387 32.344029 231 76 60
-18.684125 -15.640305 47.838321 155 89 182
40.657935 -57.820153 39.655879 243 156 18
-29.671032 -78.910074 35.180542 155 89 182
35.164485 10.544962 46.412272 231 76 60
67.582240 -44.727521 36.461730 243 156 18
83.791122 -72.363758 24.707544 243 156 18
91.895561 -86.181879 16.796775 243 156 18
95.947781 -93.090944 12.231288 243 156 18
97.973890 -96.545467 9.765515 243 156 18
-1.013055 -98.272734 28.072495 155 89 182
-50.506530 -99.136372 23.493171 155 89 182
-75.253263 -99.568186 17.083662 155 89 182
12.373368 0.215908 47.607245 231 76 60
-43.813314 50.107956 40.497918 22 160 133
-71.906657 75.053978 27.757249 22 160 133
-85.953331 -12.473011 33.641906 155 89 182
7.023336 -56.236506 42.440605 243 156 18
53.511667 -78.118253 31.406198 243 156 18
76.755834 -89.059124 21.258867 243 156 18
88.377914 -94.529562 14.796164 243 156 18
94.188957 2.735218 30.054014 231 76 60
97.094479 51.367607 24.323785 231 76 60
-1.452760 75.683804 36.869824 22 160 133
49.273620 -12.158098 43.774605 243 156 18
74.636812 -56.079049 31.989210 243 156 18
-12.681595 21.960475 47.668347 22 160 133
43.659201 60.980239 38.372617 231 76 60
-28.170400 80.490122 34.779682 22 160 133
35.914800 -9.754940 46.299958 243 156 18
67.957401 -54.877472 34.323013 243 156 18
-16.021299 -77.438736 36.604898 155 89 182
-58.010650 -88.719368 26.635466 155 89 182
-79.005327 5.640316 36.061511 22 160 133
10.497338 -47.179842 44.283018 243 156 18
55.248671 -73.589921 32.517188 243 156 18
77.624335 -86.794958 21.871297 243 156 18
-11.187832 -93.397484 30.644326 155 89 182
44.406085 -96.698742 25.972333 243 156 18
-27.796957 1.650630 46.902184 22 160 133
36.101520 50.825315 41.685286 231 76 60
-31.949239 -24.587343 46.198268 155 89 182
-65.974622 -62.293673 33.205824 155 89 182
-82.987309 -81.146832 22.134917 155 89 182
-91.493654 -90.573416 15.227060 155 89 182
-95.746832 -95.286713 11.361411 155 89 182
-97.873411 2.356646 28.362412 22 160 133
1.063293 51.178322 43.060398 231 76 60
50.531645 75.589161 32.693958 231 76 60
75.265822 -12.205420 37.313938 243 156 18
87.632914 43.897290 29.888141 231 76 60
93.816452 71.948647 20.813422 231 76 60
-3.091772 -14.025677 47.820535 155 89 182
-51.545887 -57.012839 37.634416 155 89 182
24.227057 21.493580 47.146196 231 76 60
62.113528 -39.253209 38.870511 243 156 18
81.056767 30.373394 34.375122 231 76 60
-9.471618 65.186696 40.380874 22 160 133
-54.735808 -17.406651 42.685771 155 89 182
-77.367907 41.296673 34.072816 22 160 133
11.316048 70.648336 38.828967 231 76 60
-44.341974 85.324173 30.715461 22 160 133
27.829013 -7.337916 47.181253 243 156 18
-36.085494 46.331043 42.671070 22 160 133
31.957252 73.165522 36.776767 231 76 60
-34.021373 86.582756 31.912203 22 160 133
-67.010689 93.291378 22.513247 22 160 133
16.494657 -3.354310 47.784181 243 156 18
-41.752672 48.322845 41.320152 22 160 133
29.123664 -25.838578 46.403599 243 156 18
64.561834 -62.919288 33.424854 243 156 18
-17.719084 -81.459646 35.191710 155 89 182
-58.859544 9.270178 41.931567 22 160 133
20.570228 54.635091 42.538409 231 76 60
-39.714885 -22.682455 45.282054 155 89 182
-69.857445 38.658772 36.881373 22 160 133
15.071279 69.329386 39.184279 231 76 60
57.535639 84.664698 28.315217 231 76 60
-21.232181 -7.667654 47.714601 155 89 182
39.383910 46.166172 42.204361 231 76 60
69.691954 -26.916914 38.339536 243 156 18
84.845982 -63.458457 26.840973 243 156 18
-7.577011 -81.729231 35.191045 155 89 182
46.211495 -90.864611 28.142092 243 156 18
-26.894252 -95.432310 28.977315 155 89 182
-63.447127 2.283846 40.546999 22 160 133
18.276436 51.141925 43.280430 231 76 60
-40.861783 75.570960 34.697580 22 160 133
29.569108 -12.214519 47.052550 243 156 18
64.784555 -56.107259 34.937401 243 156 18
-17.607722 -78.053632 36.348951 155 89 182
41.196136 10.973185 45.470819 231 76 60
70.598068 -44.513407 35.618951 243 156 18
85.299034 27.743297 33.077219 231 76 60
92.649517 63.871646 23.618932 231 76 60
96.324759 81.935825 16.433563 231 76 60
-1.837621 -9.032088 47.756128 155 89 182
-50.918808 -54.516044 38.239868 155 89 182
24.540596 -77.258024 36.112237 243 156 18
62.270298 11.370989 41.105413 231 76 60
-18.864851 -44.314504 44.695754 155 89 182
-59.432425 27.842748 40.953693 22 160 133
-79.716215 63.921375 28.558590 22 160 133
-89.858103 81.960688 19.203818 22 160 133
-94.929056 90.980339 13.579266 22 160 133
2.535473 -4.509828 47.664719 243 156 18
-48.732262 -52.254915 39.101980 155 89 182
25.633869 23.872542 46.829314 231 76 60
62.816935 -38.063729 38.872662 243 156 18
-18.591533 -69.031863 39.137118 155 89 182
-59.295769 15.484068 41.785169 22 160 133
-79.647884 57.742033 30.057566 22 160 133
-89.823942 -21.128983 31.826684 155 89 182
5.088029 -60.564489 41.417503 243 156 18
52.544017 19.717754 42.972898 231 76 60
76.272006 -40.141125 34.609244 243 156 18
-11.863996 -70.070562 38.995862 155 89 182
-55.931997 14.964719 42.519417 22 160 133
22.034001 57.482362 41.852551 231 76 60
61.016998 78.741179 29.604130 231 76 60
-19.491500 89.370594 32.108822 22 160 133
40.254250 -5.314705 45.518856 243 156 18
70.127125 -52.657351 34.098761 243 156 18
-14.936438 -76.328678 36.976604 155 89 182
-57.468219 11.835662 42.232203 22 160 133
-78.734107 55.917830 30.739274 22 160 133
10.632945 77.958918 36.503410 231 76 60
55.316472 -11.020542 42.683620 243 156 18
-22.341764 -55.510273 42.234678 155 89 182
38.829119 22.244864 45.455608 231 76 60
-30.585442 61.122432 40.295110 22 160 133
34.707279 -19.438784 46.259317 243 156 18
67.353640 40.280609 37.350945 231 76 60
-16.323180 -29.859695 46.968708 155 89 182
41.838412 -64.929848 37.736962 243 156 18
-29.080794 17.535076 46.997914 22 160 133
35.459602 58.767538 40.253944 231 76 60
-32.270198 -20.616231 46.498899 155 89 182
-66.135101 -60.308118 33.661027 155 89 182
16.932451 19.845942 47.742629 231 76 60
-41.533775 -40.077028 43.000627 155 89 182
29.233112 29.961486 46.061268 231 76 60
64.616556 -35.019257 38.891218 243 156 18
82.308283 32.490370 33.707635 231 76 60
-8.845861 66.245184 40.094080 22 160 133
45.577068 -16.877407 44.537330 243 156 18
72.788534 41.561298 35.491233 231 76 60
-13.605733 70.780649 38.770094 22 160 133
43.197136 85.390320 30.913537 231 76 60
71.598568 -7.304838 38.493381 243 156 18
-14.200716 -53.652420 42.977386 155 89 182
-57.100358 -76.826210 31.107903 155 89 182
-78.550181 11.586895 36.304955 22 160 133
-89.275093 -44.206553 29.195158 155 89 182
5.362455 27.896724 47.106709 231 76 60
-47.318773 63.948364 36.878586 22 160 133
-73.659387 81.974182 24.936862 22 160 133
-86.829691 -9.012910 33.312538 155 89 182
-93.414850 45.493546 27.212083 22 160 133
-96.707420 72.746773 19.272785 22 160 133
1.646288 -13.626614 47.727256 243 156 18
-49.176855 43.186693 40.845466 22 160 133
-74.588428 -28.406653 36.654625 155 89 182
12.705786 35.796673 46.295896 231 76 60
56.352892 67.898335 34.038522 231 76 60
-21.823554 83.949165 34.057012 22 160 133
-60.911775 91.974583 24.639831 22 160 133
-80.455885 -4.012708 35.498230 155 89 182
9.772056 -52.006354 43.293786 243 156 18
54.886026 -76.003175 31.810296 243 156 18
77.443013 -88.001585 21.454167 243 156 18
88.721504 5.999206 32.492108 231 76 60
-5.639247 52.999601 43.019862 22 160 133
47.180376 -23.500199 43.769846 243 156 18
73.590188 -61.750097 31.062896 243 156 18
-13.204906 -80.875053 35.502877 155 89 182
43.397546 -90.437527 28.883848 243 156 18
71.698775 -95.218763 20.281649 243 156 18
-14.150614 -97.609377 28.732495 155 89 182
42.924695 1.195309 44.795747 231 76 60
-28.537652 -49.402347 42.850723 155 89 182
35.731173 -74.701171 35.768747 243 156 18
-32.134414 12.649413 46.773858 22 160 133
-66.067204 56.324706 34.553776 22 160 133
16.966397 -21.837647 47.605324 243 156 18
58.483200 -60.918822 35.401192 243 156 18
-20.758400 -80.459414 35.376794 155 89 182
39.620800 -90.229702 29.642937 243 156 18
69.810400 4.885147 38.953772 231 76 60
84.905195 52.442575 29.216578 231 76 60
-7.547400 -23.778713 47.499752 155 89 182
46.226301 -61.889358 37.626793 243 156 18
73.113151 -80.944681 25.476472 243 156 18
86.556578 -90.472336 17.237159 243 156 18
-6.721712 -95.236168 29.779570 155 89 182
46.639142 -97.618084 25.082426 243 156 18
73.319573 1.190958 37.622621 231 76 60
-13.340214 50.595479 43.499646 22 160 133
-56.670108 -24.702260 41.775422 155 89 182
21.664946 -62.351131 40.729413 243 156 18
60.832472 -81.175566 28.817215 243 156 18
-19.583763 9.412217 47.845969 22 160 133
40.208120 -45.293889 42.253389 243 156 18
-29.895940 -72.646947 37.167439 155 89 182
35.052030 13.676528 46.404519 231 76 60
67.526016 56.838264 34.048500 231 76 60
-16.236993 78.419132 36.283326 22 160 133
-58.118496 -10.790434 42.103209 155 89 182
-79.059248 44.604783 32.898157 22 160 133
10.470376 -27.697608 47.235851 243 156 18
-44.764814 -63.848805 37.448032 155 89 182
27.617593 -81.924400 34.326010 243 156 18
-36.191204 9.037799 46.252003 22 160 133
-68.095603 -45.481100 36.160259 155 89 182
-84.047804 -72.740550 24.490409 155 89 182
-92.023897 -86.370277 16.668288 155 89 182
-96.011953 -93.185139 12.161069 155 89 182
1.994025 3.407431 47.568030 231 76 60
50.997014 -48.296285 39.411750 243 156 18
-24.501493 25.851858 46.752853 22 160 133
-62.250748 62.925930 33.990521 22 160 133
-81.125374 -18.537035 35.264676 155 89 182
9.437313 -59.268517 41.838236 243 156 18
-45.281343 20.365741 44.422054 22 160 133
27.359328 60.182872 40.818176 231 76 60
-36.320336 80.091438 33.963099 22 160 133
31.839833 90.045719 30.811820 231 76 60
65.919914 -4.977141 40.064135 243 156 18
-17.040042 -52.488570 43.113518 155 89 182
-58.520021 -76.244287 30.981195 155 89 182
-79.260011 11.877857 36.066785 22 160 133
-89.630003 55.938931 26.706250 22 160 133
-94.815006 77.969465 18.454981 22 160 133
2.592499 88.984728 32.221048 231 76 60
-48.703752 94.492369 26.027091 22 160 133
-74.351873 -2.753817 37.386990 155 89 182
-87.175941 -51.376910 28.505528 155 89 182
-93.587971 24.311545 29.971755 22 160 133
3.206016 -37.844226 45.781479 243 156 18
-48.396993 -68.922114 35.270622 155 89 182
-74.198494 15.538943 37.633698 22 160 133
12.900752 57.769470 42.156067 231 76 60
56.450377 78.884735 30.579798 231 76 60
-21.774812 89.442368 31.930504 22 160 133
-60.887408 -5.278816 41.345906 155 89 182
19.556297 -52.639408 42.964630 243 156 18
59.778147 23.680296 41.197701 231 76 60
-20.110927 61.840148 40.969095 22 160 133
-60.055461 80.920076 29.095621 22 160 133
19.972268 -9.539963 47.826238 243 156 18
59.986134 -54.769983 36.396649 243 156 18
79.993067 22.615008 35.397379 231 76 60
-10.003467 61.307507 41.357021 22 160 133
44.998269 80.653753 32.276702 231 76 60
-27.500865 -9.673124 47.248211 155 89 182
36.249566 45.163436 42.891865 231 76 60
-31.875217 -27.418282 46.008859 155 89 182
-65.937610 36.290860 38.356965 22 160 133
17.031196 -31.854570 46.729937 243 156 18
-41.484404 34.072714 43.907557 22 160 133
29.257798 67.036357 38.913436 231 76 60
-35.371101 83.518181 32.896175 22 160 133
32.314451 -8.240911 46.757779 243 156 18
66.157227 45.879545 36.619980 231 76 60
-16.921388 -27.060227 47.189670 155 89 182
41.539307 36.469886 43.555064 231 76 60
70.769653 68.234944 30.265601 231 76 60
-14.615173 -15.882529 47.980142 155 89 182
42.692413 -57.941265 39.267306 243 156 18
-28.653793 -78.970633 35.255306 155 89 182
35.673103 -89.485312 30.544908 243 156 18
-32.163448 -94.742661 28.782251 155 89 182
33.918276 2.628671 46.325288 231 76 60
66.959138 -48.685665 35.768626 243 156 18
83.479567 -74.342833 24.166107 243 156 18
-8.260216 12.828584 48.032074 22 160 133
45.869894 56.414294 38.952785 231 76 60
72.934947 78.207145 26.457417 231 76 60
86.467476 -10.896426 33.464446 243 156 18
-6.766263 44.551787 44.775724 22 160 133
-53.383131 -27.724106 42.211270 155 89 182
23.308434 -63.862052 40.229282 243 156 18
-38.345783 -81.931028 33.013422 155 89 182
30.827107 -90.965509 30.545502 243 156 18
65.413556 4.517243 40.177493 231 76 60
-17.293223 52.258620 43.142877 22 160 133
41.353388 76.129313 34.446323 231 76 60
70.676694 -11.935345 38.811488 243 156 18
-14.661653 44.032326 44.904652 22 160 133
-57.330828 -27.983837 41.408463 155 89 182
-78.665414 -63.991919 28.891072 155 89 182
-89.332705 18.004041 32.199972 22 160 133
-94.666357 59.002023 23.926318 22 160 133
-97.333174 79.501009 16.811057 22 160 133
-98.666592 89.750509 12.359898 22 160 133
0.666706 94.875250 29.599578 231 76 60
-49.666648 -2.562374 43.434072 155 89 182
-74.833322 48.718815 33.319793 22 160 133
12.583338 -25.640593 47.351151 243 156 18
-43.708329 -62.820296 37.899621 155 89 182
-71.854167 18.589852 38.281083 22 160 133
14.072918 59.294925 41.810756 231 76 60
-42.963543 -20.352538 44.880013 155 89 182
28.518229 -60.176268 40.725102 243 156 18
-35.740886 -80.088139 34.051728 155 89 182
-67.870440 9.955933 39.650242 22 160 133
16.064779 -45.022035 44.677711 243 156 18
-41.967611 27.488983 44.511995 22 160 133
29.016194 63.744493 39.801462 231 76 60
64.508100 81.872244 27.664371 231 76 60
82.254047 -9.063877 35.035725 243 156 18
91.127024 45.468063 28.191700 231 76 60
95.563517 72.734032 19.798001 231 76 60
97.781754 -13.632984 28.656452 243 156 18
98.890877 43.183508 25.182059 231 76 60
99.445438 71.591754 18.347179 231 76 60
99.722719 -14.204123 27.718785 243 156 18
-0.138640 42.897940 44.708319 22 160 133
49.930682 -28.551030 42.716155 243 156 18
-25.034659 -64.275517 39.952812 155 89 182
37.482669 -82.137756 33.061757 243 156 18
-31.258664 -91.068878 30.453019 155 89 182
-65.629334 -95.534439 21.903150 155 89 182
-82.814665 2.232780 34.561455 22 160 133
-91.407337 -48.883610 27.310247 155 89 182
-95.703669 -74.441805 19.163980 155 89 182
-97.851830 12.779098 28.623009 22 160 133
1.074083 -43.610454 44.649997 243 156 18
-49.462957 28.194773 42.863450 22 160 133
25.268521 64.097385 39.985855 231 76 60
62.634258 -17.951306 40.878644 243 156 18
-18.682870 41.024346 45.322151 22 160 133
40.658565 70.512176 36.362498 231 76 60
-29.670718 85.256090 32.923388 22 160 133
-64.835358 92.628040 23.384335 22 160 133
-82.417679 -3.685978 34.794569 155 89 182
8.791161 48.157010 44.048738 231 76 60
54.395580 -25.921495 42.151208 243 156 18
77.197790 -62.960749 29.613655 243 156 18
88.598890 -81.480370 19.868243 243 156 18
94.299450 -90.740185 13.952546 243 156 18
97.149725 -95.370092 10.681801 243 156 18
98.574858 2.314953 28.026576 231 76 60
-0.712569 51.157475 43.033962 22 160 133
-50.356283 75.578737 32.723184 22 160 133
24.821858 -12.210631 47.410460 243 156 18
-37.589071 43.894687 42.926388 22 160 133
-68.794537 71.947341 29.729540 22 160 133
-84.397268 85.973673 19.844674 22 160 133
7.801366 -7.013164 47.990499 243 156 18
-46.099315 46.493416 40.878601 22 160 133
-73.049660 73.246708 28.004308 22 160 133
13.475171 -13.376646 48.030930 243 156 18
-43.262415 43.311677 42.094460 22 160 133
28.368793 71.655841 37.623413 231 76 60
-35.815604 85.827923 31.958320 22 160 133
32.092199 -7.086040 46.751847 243 156 18
-33.953900 46.456981 42.943377 22 160 133
-66.976953 73.228488 29.841926 22 160 133
-83.488474 86.614246 19.932034 22 160 133
-91.744242 -6.692877 31.292188 155 89 182
-95.872116 46.653562 25.882521 22 160 133
-97.936058 73.326778 18.512188 22 160 133
1.031970 -13.336610 47.679939 243 156 18
-49.484015 43.331695 40.740838 22 160 133
-74.742007 -28.334153 36.607020 155 89 182
12.628996 35.832925 46.289721 231 76 60
-43.685503 -32.083538 43.733110 155 89 182
28.157248 33.958230 45.696836 231 76 60
-35.921376 66.979117 38.128953 22 160 133
32.039313 -16.510442 46.728735 243 156 18
-33.980343 41.744781 43.873596 22 160 133
33.009827 70.872388 37.385635 231 76 60
66.504912 85.436192 25.827470 231 76 60
83.252459 -7.281902 34.641368 243 156 18
91.626225 46.359048 27.795355 231 76 60
-4.186886 73.179526 37.865324 22 160 133
47.906556 -13.410238 44.096236 243 156 18
-26.046722 -56.705117 41.678505 155 89 182
-63.023362 -78.352561 29.228368 155 89 182
-81.511679 -89.176283 19.630919 155 89 182
9.244160 5.411860 47.958074 231 76 60
-45.377922 -47.294068 40.853024 155 89 182
27.311039 26.352966 46.523104 231 76 60
63.655519 -36.823518 38.861125 243 156 18
-18.172240 -68.411760 39.341538 155 89 182
40.913882 -84.205875 31.778510 243 156 18
-29.543059 -92.102938 30.204353 155 89 182
35.228469 3.948530 46.225905 231 76 60
67.614236 -48.025737 35.739777 243 156 18
83.807116 -74.012866 24.157937 243 156 18
91.903563 12.993566 31.267955 231 76 60
95.951777 56.496782 23.890674 231 76 60
97.975893 -21.751609 28.221703 243 156 18
98.987942 39.124196 25.844083 231 76 60
-0.506028 -30.437901 46.564441 155 89 182
-50.253015 -65.218949 35.874939 155 89 182
-75.126505 17.390524 37.259076 22 160 133
-87.563257 -41.304736 30.404124 155 89 182
6.218373 -70.652370 38.747089 243 156 18
-46.890812 14.673816 44.311199 22 160 133
26.554594 -42.663093 44.449825 243 156 18
-36.722703 -71.331544 36.724098 155 89 182
-68.361354 -85.665770 25.211804 155 89 182
-84.180679 -92.832890 17.160829 155 89 182
-92.090340 -96.416445 12.446892 155 89 182
-96.045170 1.791778 29.166679 22 160 133
-98.022585 -49.104109 24.324665 155 89 182
0.988708 -74.552054 37.189248 243 156 18
-49.505644 12.723973 43.710852 22 160 133
-74.752822 -43.638015 34.435089 155 89 182
-87.376413 -71.819005 23.491442 155 89 182
-93.688202 -85.909500 16.127890 155 89 182
3.155897 -92.954750 30.616238 243 156 18
-48.422050 3.522624 43.795938 22 160 133
25.788975 -48.238688 43.333249 243 156 18
-37.105513 25.880656 45.402741 22 160 133
31.447244 62.940326 39.743309 231 76 60
-34.276378 81.470165 33.773685 22 160 133
-67.138190 -9.264918 39.851484 155 89 182
-83.569098 45.367541 31.168118 22 160 133
8.215452 72.683768 38.170590 231 76 60
54.107728 -13.658115 42.898011 243 156 18
77.053862 43.170943 33.824441 231 76 60
88.526936 71.585469 23.124852 231 76 60
-5.736534 85.792732 33.631601 22 160 133
-52.868266 92.896366 25.936553 22 160 133
23.565867 -3.551816 47.357430 243 156 18
-38.217068 -51.775908 41.208634 155 89 182
30.891466 -75.887952 36.006706 243 156 18
-34.554267 -87.943974 31.302364 155 89 182
32.722867 6.028011 46.640534 231 76 60
66.361432 53.014007 35.117073 231 76 60
83.180714 -23.492997 34.200380 243 156 18
-8.409641 -61.746497 41.228886 155 89 182
45.795178 -80.873251 32.034979 243 156 18
-27.102411 9.563375 47.277336 22 160 133
36.448796 54.781690 40.937104 231 76 60
68.224397 77.390842 28.158083 231 76 60
-15.887802 -11.304578 48.008947 155 89 182
42.056098 -55.652289 39.861007 243 156 18
71.028051 22.173855 38.317921 231 76 60
85.514021 -38.913071 31.609957 243 156 18
92.757015 30.543463 29.822891 231 76 60
96.378508 65.271730 21.616819 231 76 60
-1.810747 -17.364134 47.650070 155 89 182
-50.905375 41.317935 40.850358 22 160 133
-75.452685 -29.341033 36.296363 155 89 182
-87.726345 -64.670515 25.409536 155 89 182
6.136828 17.664741 47.862549 231 76 60
53.068414 -41.167631 40.511556 243 156 18
-23.465793 29.416184 46.577072 22 160 133
38.267105 -35.291908 44.261317 243 156 18
-30.866449 32.354047 45.634298 22 160 133
34.566777 -33.822978 45.012341 243 156 18
-32.716613 -66.911488 38.578081 155 89 182
-66.358304 -83.455744 26.610615 155 89 182
-83.179150 8.272128 34.692929 22 160 133
8.410423 54.136062 42.898579 231 76 60
54.205213 77.068033 31.614926 231 76 60
77.102604 88.534012 21.357152 231 76 60
88.551302 -5.732992 32.550287 243 156 18
94.275656 -52.866497 25.336657 243 156 18
-2.862174 23.566751 47.315211 22 160 133
48.568912 -38.216624 41.837454 243 156 18
-25.715544 30.891688 46.229792 22 160 133
-62.857771 65.445843 33.208213 22 160 133
-81.428890 82.722921 22.132103 22 160 133
9.285557 91.361465 31.510227 231 76 60
-45.357223 -4.319269 44.517770 155 89 182
-72.678609 -52.159634 33.387682 155 89 182
-86.339302 -76.079817 22.532480 155 89 182
6.830347 11.960092 48.001657 231 76 60
-46.584826 -44.019957 41.279540 155 89 182
-73.292413 27.990022 37.127376 22 160 133
13.353794 63.995013 40.668449 231 76 60
-43.323102 -18.002495 44.935417 155 89 182
28.338449 40.998755 44.613185 231 76 60
-35.830777 -29.500623 45.317674 155 89 182
-67.915387 -64.750314 32.062163 155 89 182
-83.957691 -82.375154 21.352079 155 89 182
-91.978846 -91.187582 14.772339 155 89 182
-95.989428 -95.593786 11.115059 155 89 182
2.005288 -97.796898 28.374081 243 156 18
-48.997355 1.101553 43.492441 22 160 133
25.501323 -49.449224 43.057623 243 156 18
62.750659 -74.724612 30.422232 243 156 18
-18.624669 12.637694 47.874198 22 160 133
40.687666 -43.681154 42.488494 243 156 18
70.343833 -71.840577 29.309666 243 156 18
85.171919 -85.920286 19.574459 243 156 18
92.585955 -92.960148 13.763118 243 156 18
-3.707021 -96.480074 29.091516 155 89 182
-51.853509 -98.240032 23.708746 155 89 182
24.073246 -99.120016 27.473972 243 156 18
-37.963378 0.439991 45.561519 22 160 133
-68.981690 50.219994 34.828119 22 160 133
-84.490843 75.109997 23.528266 22 160 133
7.754578 87.554998 32.996564 231 76 60
53.877287 93.777504 25.368011 231 76 60
-23.061357 96.888752 28.620381 22 160 133
-61.530676 98.444376 21.591103 22 160 133
-80.765343 -0.777813 35.168700 155 89 182
-90.382671 -50.388908 27.396295 155 89 182
-95.191336 24.805546 29.219513 22 160 133
2.404333 -37.597227 45.765543 243 156 18
51.202168 31.201386 42.248950 231 76 60
75.601082 -34.399307 35.674608 243 156 18
-12.199458 32.800348 46.702423 22 160 133
-56.099730 66.400175 34.510746 22 160 133
-78.049865 83.200083 23.103232 22 160 133
-89.024935 -8.399957 32.445993 155 89 182
5.487534 -54.199977 42.796297 243 156 18
-47.256231 22.900012 43.807640 22 160 133
-73.628116 61.450005 31.126668 22 160 133
-86.814060 80.725002 20.830188 22 160 133
6.592971 90.362501 31.857963 231 76 60
-46.703515 -4.818749 44.252934 155 89 182
26.648242 -52.409372 42.464356 243 156 18
-36.675878 -76.204686 35.163195 155 89 182
31.662061 -88.102341 31.596076 243 156 18
-34.168971 5.948828 46.455264 22 160 133
-67.084484 52.974415 34.924800 22 160 133
16.457758 76.487207 36.888447 231 76 60
-41.771121 -11.756396 45.361032 155 89 182
-70.885563 -55.878201 33.255558 155 89 182
14.557220 -77.939100 36.477404 243 156 18
57.278609 -88.969545 26.693590 243 156 18
-21.360695 -94.484777 29.838982 155 89 182
-60.680346 2.757612 41.264105 22 160 133
19.659827 -48.621192 43.723025 243 156 18
59.829912 25.689404 41.013045 231 76 60
-20.085044 -37.155299 45.855846 155 89 182
39.957478 31.422350 44.480786 231 76 60
-30.021260 -34.288824 45.482221 155 89 182
-65.010629 32.855587 39.071422 22 160 133
-82.505312 66.427794 26.934805 22 160 133
8.747342 -16.786103 47.973752 243 156 18
54.373670 41.606951 40.196004 231 76 60
77.186837 -29.196525 35.782127 243 156 18
88.593416 -64.598265 25.096302 243 156 18
94.296713 17.700869 30.129375 231 76 60
97.148352 58.850436 22.839055 231 76 60
98.574181 79.425216 16.251837 231 76 60
99.287090 -10.287391 27.960656 243 156 18
99.643545 44.856305 24.488227 231 76 60
-0.178228 -27.571847 46.796451 155 89 182
49.910884 -63.785925 36.299574 243 156 18
-25.044558 18.107038 47.259555 22 160 133
-62.522278 -40.946479 38.484113 155 89 182
18.738861 -70.473242 38.702815 243 156 18
59.369431 -85.236616 27.689633 243 156 18
-20.315285 -92.618313 30.720172 155 89 182
39.842358 -96.309156 26.985748 243 156 18
-30.078821 -98.154573 27.449045 155 89 182
-65.039411 -99.077291 20.411375 155 89 182
-82.519703 -99.538641 14.711742 155 89 182
8.740147 -99.769325 27.711630 243 156 18
-45.629926 0.115339 44.164433 22 160 133
27.185037 -49.942331 42.823858 243 156 18
63.592520 -74.971166 30.134420 243 156 18
81.796255 12.514417 35.178192 231 76 60
-9.101871 56.257210 42.481642 22 160 133
-54.550934 -21.871395 42.460027 155 89 182
-77.275467 -60.935698 30.095775 155 89 182
11.362267 -80.467854 35.662708 243 156 18
55.681133 9.766076 42.609372 231 76 60
-22.159433 54.883037 42.374315 22 160 133
38.920283 -22.558482 45.416541 243 156 18
69.460139 38.720760 36.988783 231 76 60
84.730072 -30.639620 33.022697 243 156 18
92.365036 -65.319810 23.369839 243 156 18
-3.817482 -82.659903 34.715474 155 89 182
-51.908741 -91.329956 26.766903 155 89 182
-75.954370 4.335024 36.972191 22 160 133
-87.977190 52.167511 28.062718 22 160 133
-93.988590 76.083755 19.404346 22 160 133
3.005704 88.041878 32.611787 231 76 60
51.502852 -5.979061 43.287153 243 156 18
75.751424 -52.989531 32.237954 243 156 18
-12.124287 23.505235 47.545481 22 160 133
43.937855 61.752620 38.125551 231 76 60
71.968927 -19.123691 38.219142 243 156 18
85.984468 40.438156 31.181219 231 76 60
92.992229 70.219078 21.712103 231 76 60
-3.503884 -14.890461 47.834764 155 89 182
48.248057 42.554770 41.189861 231 76 60
-25.875971 71.277385 37.926288 22 160 133
37.062016 85.638695 31.837745 231 76 60
-31.468992 92.819347 29.693656 22 160 133
34.265504 -3.590327 46.336932 243 156 18
67.132750 -51.795163 35.115497 243 156 18
83.566380 24.102418 34.000890 231 76 60
91.783190 -37.948792 29.253871 243 156 18
95.891590 31.025605 28.392723 231 76 60
97.945795 -34.487197 27.031217 243 156 18
-1.027102 -67.243600 39.455225 155 89 182
49.486451 16.378200 43.663635 231 76 60
-25.256774 -41.810899 44.685555 155 89 182
-62.628388 29.094551 40.061078 22 160 133
18.685806 64.547276 40.371709 231 76 60
-40.657096 82.273636 32.525365 22 160 133
-70.328550 -8.863181 38.919263 155 89 182
14.835726 45.568409 44.594951 231 76 60
57.417865 -27.215796 41.451755 243 156 18
78.708930 -63.607898 28.972161 243 156 18
-10.645534 18.196051 47.923331 22 160 133
-55.322766 -40.901976 40.132051 155 89 182
-77.661386 -70.450988 27.417140 155 89 182
11.169308 14.774506 48.036380 231 76 60
55.584655 -42.612748 39.771433 243 156 18
77.792325 -71.306372 27.111690 243 156 18
-11.103836 -85.653191 33.782103 155 89 182
-55.551920 -92.826595 25.458930 155 89 182
22.224040 -96.413298 28.910210 243 156 18
61.112022 1.793352 41.091990 231 76 60
-19.443990 -49.103322 43.618135 155 89 182
-59.721994 25.448339 41.051373 22 160 133
20.139003 62.724171 40.742779 231 76 60
60.069499 -18.637916 41.481352 243 156 18
80.034752 40.681043 33.301246 231 76 60
90.017376 70.340519 22.918794 231 76 60
95.008688 -14.829739 29.907954 243 156 18
97.504339 42.585130 25.954492 231 76 60
-1.247828 71.292567 38.278270 22 160 133
-50.623913 85.646286 29.229441 22 160 133
-75.311956 92.823143 20.141814 22 160 133
-87.655983 -3.588429 32.793663 155 89 182
6.172011 -51.794214 43.244853 243 156 18
-46.913996 24.102893 43.770080 22 160 133
26.543002 62.051444 40.412135 231 76 60
-36.728499 81.025724 33.572795 22 160 133
-68.364248 -9.487138 39.501562 155 89 182
15.817876 -54.743571 42.738180 243 156 18
-42.091064 -77.371783 33.928885 155 89 182
28.954468 11.314107 47.124949 231 76 60
